-1.968699999999999894e-01 -2.701600000000000112e-01 -1.271500000000000130e-01 4.126495122909545898e-01 -9.008043408393859863e-01 -1.351741850376129150e-01
8.587000000000000188e-02 -1.773200000000000054e-01 -5.062999999999999723e-01 5.782667994499206543e-01 -8.046354055404663086e-01 -1.347940266132354736e-01
4.709800000000000098e-01 1.812699999999999867e-01 -5.374999999999999917e-02 9.753872156143188477e-01 5.386644229292869568e-02 -2.138183116912841797e-01
6.630999999999999395e-02 4.395200000000000218e-01 -1.026299999999999990e-01 -9.230192303657531738e-01 -2.185706049203872681e-01 -3.166423439979553223e-01
4.015799999999999925e-01 -6.407000000000000195e-02 5.274999999999999828e-02 9.870889782905578613e-01 -1.596411764621734619e-01 1.304419711232185364e-02
4.154900000000000260e-01 -5.945999999999999897e-02 3.091999999999999957e-02 8.904414772987365723e-01 -4.054045379161834717e-01 2.067878395318984985e-01
1.980699999999999961e-01 3.200999999999999679e-02 3.945899999999999963e-01 -2.845118008553981781e-02 -2.941448390483856201e-01 9.553372859954833984e-01
-2.802399999999999891e-01 -3.197699999999999987e-01 -1.424799999999999955e-01 -7.261366844177246094e-01 -4.837695658206939697e-01 -4.885616600513458252e-01
1.461399999999999921e-01 1.747799999999999909e-01 3.597799999999999887e-01 -4.031531512737274170e-01 -5.094141140580177307e-02 9.137135744094848633e-01
-2.702499999999999902e-01 -2.666799999999999726e-01 -2.631000000000000005e-02 -4.556602835655212402e-01 8.431124091148376465e-01 -2.855436801910400391e-01
-2.872899999999999898e-01 -8.691999999999999726e-02 -2.995099999999999985e-01 5.984364151954650879e-01 7.783697247505187988e-01 1.897747665643692017e-01
2.828200000000000158e-01 1.102199999999999985e-01 4.050500000000000211e-01 -6.668962836265563965e-01 -7.421032786369323730e-01 -6.732031702995300293e-02
-2.225699999999999901e-01 -2.939999999999999836e-01 8.199999999999999824e-04 8.026851713657379150e-02 -7.297947406768798828e-01 -6.789378523826599121e-01
-4.010099999999999776e-01 -1.754699999999999871e-01 -3.102699999999999902e-01 -8.648527413606643677e-02 -7.919572591781616211e-01 -6.044203042984008789e-01
-6.138099999999999667e-01 -1.760299999999999920e-01 -1.765599999999999947e-01 -9.246303439140319824e-01 -9.895896166563034058e-02 3.677849769592285156e-01
-2.102499999999999925e-01 -8.810999999999999388e-02 -2.917600000000000193e-01 -4.850256741046905518e-01 -1.157311275601387024e-01 8.668081760406494141e-01
3.171999999999999820e-01 3.007199999999999873e-01 -2.941400000000000126e-01 -2.944544851779937744e-01 -8.912230134010314941e-01 -3.449900746345520020e-01
4.372199999999999975e-01 6.137000000000000094e-02 2.251499999999999890e-01 8.971551656723022461e-01 -4.266694784164428711e-01 1.143056228756904602e-01
3.371399999999999952e-01 2.261799999999999922e-01 4.200200000000000045e-01 6.996178627014160156e-01 6.663289070129394531e-01 2.579550147056579590e-01
-1.129799999999999971e-01 2.641399999999999859e-01 1.221000000000000037e-02 -5.980641841888427734e-01 9.164363145828247070e-02 -7.961913347244262695e-01
-1.457499999999999907e-01 -2.151800000000000102e-01 -2.147999999999999909e-01 4.968807995319366455e-01 8.533695936203002930e-01 -1.577016711235046387e-01
5.001799999999999580e-01 1.947200000000000042e-01 9.808000000000000052e-02 9.377158284187316895e-01 -2.180294692516326904e-01 2.704662680625915527e-01
-4.846999999999999920e-02 2.884200000000000097e-01 -5.052000000000000240e-02 -5.321620702743530273e-01 6.414838433265686035e-01 -5.525413751602172852e-01
2.438700000000000034e-01 4.074800000000000089e-01 2.046199999999999963e-01 1.699670255184173584e-01 9.763815999031066895e-01 -1.333794444799423218e-01
-2.925099999999999922e-01 -3.417100000000000137e-01 -1.859999999999999848e-02 2.943159639835357666e-01 5.460798740386962891e-01 7.843308448791503906e-01
-1.617000000000000035e-02 -1.223700000000000065e-01 1.295900000000000107e-01 -6.159505844116210938e-01 2.605437934398651123e-01 7.434526085853576660e-01
1.268799999999999928e-01 2.695799999999999863e-01 -3.801800000000000179e-01 2.626068294048309326e-01 8.163464069366455078e-01 -5.144086480140686035e-01
8.828999999999999349e-02 -8.645999999999999519e-02 -2.767499999999999960e-01 8.761219978332519531e-01 -2.599367201328277588e-01 4.060088098049163818e-01
-2.713800000000000101e-01 -3.909299999999999997e-01 -5.603999999999999954e-02 -1.254246756434440613e-02 -9.997754693031311035e-01 -1.707763597369194031e-02
4.388000000000000234e-02 2.126000000000000112e-02 -4.707200000000000273e-01 2.625169157981872559e-01 8.545448780059814453e-01 -4.481494426727294922e-01
1.536899999999999933e-01 -1.127200000000000008e-01 -4.588300000000000156e-01 6.955999135971069336e-01 -3.911620974540710449e-01 -6.026051640510559082e-01
2.527300000000000102e-01 1.556099999999999983e-01 -3.293699999999999961e-01 8.429597020149230957e-01 3.745503723621368408e-01 -3.861747682094573975e-01
4.801199999999999912e-01 8.876000000000000556e-02 3.479000000000000148e-02 9.577843546867370605e-01 -2.443635314702987671e-01 1.514448225498199463e-01
-1.207600000000000062e-01 -2.234099999999999975e-01 -2.459600000000000120e-01 7.282468676567077637e-01 -5.758190155029296875e-01 3.716033399105072021e-01
-9.805999999999999439e-02 -6.223999999999999672e-02 -8.981000000000000094e-02 -6.092644929885864258e-01 -7.056198716163635254e-01 3.617973029613494873e-01
-1.587300000000000100e-01 -2.719300000000000050e-01 -2.255399999999999905e-01 7.515141367912292480e-01 -5.737818479537963867e-01 3.255778551101684570e-01
-7.550000000000000287e-03 3.884500000000000175e-01 9.986000000000000432e-02 -8.519821614027023315e-02 7.604277133941650391e-01 6.438096761703491211e-01
-1.510000000000000057e-02 3.050499999999999878e-01 -8.659999999999999643e-02 -7.338798642158508301e-01 6.440756916999816895e-01 2.158401459455490112e-01
-6.239999999999999887e-03 -1.058199999999999974e-01 1.930099999999999871e-01 -6.105380654335021973e-01 -7.326292395591735840e-01 3.008285164833068848e-01
1.067199999999999954e-01 3.375400000000000067e-01 2.793300000000000227e-01 1.160748824477195740e-01 2.658145725727081299e-01 -9.570105671882629395e-01
-2.363699999999999968e-01 -1.861399999999999999e-01 -3.158699999999999841e-01 4.309525713324546814e-02 -8.964297175407409668e-01 4.410856068134307861e-01
-3.064600000000000102e-01 -8.959000000000000297e-02 -3.064999999999999947e-01 -2.551616132259368896e-01 6.921436190605163574e-01 -6.751516461372375488e-01
1.242400000000000032e-01 -1.449199999999999933e-01 2.654299999999999993e-01 -1.121474206447601318e-01 -7.323411107063293457e-01 6.716392636299133301e-01
-5.682700000000000529e-01 -1.254300000000000137e-01 -1.661900000000000044e-01 -1.664726138114929199e-01 -3.273543715476989746e-01 -9.301214814186096191e-01
5.949999999999999734e-02 3.690800000000000192e-01 -1.761800000000000033e-01 -2.828703820705413818e-01 5.502158999443054199e-01 -7.856505513191223145e-01
-5.337000000000000077e-02 2.471700000000000008e-01 -3.905699999999999728e-01 -6.920223832130432129e-01 4.078219234943389893e-01 -5.956394076347351074e-01
9.206000000000000294e-02 -5.142999999999999655e-02 -5.300599999999999756e-01 5.685669779777526855e-01 3.989749252796173096e-01 -7.194099426269531250e-01
1.750800000000000134e-01 2.857500000000000040e-01 -3.115299999999999736e-01 6.661256551742553711e-01 6.255134940147399902e-01 -4.062134325504302979e-01
1.522900000000000087e-01 -1.882699999999999929e-01 1.350699999999999956e-01 -9.592061042785644531e-01 2.558783590793609619e-01 -1.202076524496078491e-01
-8.558000000000000329e-02 1.379599999999999993e-01 2.007500000000000118e-01 -9.130755066871643066e-01 -2.143675386905670166e-01 3.469000756740570068e-01
6.492000000000000548e-02 -1.158000000000000002e-01 -1.742100000000000037e-01 2.308112829923629761e-01 -9.729942679405212402e-01 2.866351045668125153e-03
3.394499999999999740e-01 2.514000000000000123e-01 -1.438599999999999879e-01 5.835451483726501465e-01 -6.783934831619262695e-01 -4.463824033737182617e-01
4.579300000000000037e-01 6.847999999999999921e-02 1.323699999999999877e-01 5.344457626342773438e-01 5.930880084633827209e-02 8.431192636489868164e-01
4.340000000000000108e-02 4.959200000000000275e-01 6.973999999999999644e-02 -6.914530396461486816e-01 3.529329597949981689e-01 6.303420066833496094e-01
-1.536200000000000065e-01 1.239999999999999991e-01 -2.852700000000000236e-01 -9.857366085052490234e-01 4.241731017827987671e-02 -1.628622710704803467e-01
-1.132800000000000057e-01 6.289999999999999584e-03 1.520000000000000084e-03 -9.738150835037231445e-01 -1.896851062774658203e-01 1.253142952919006348e-01
1.222999999999999955e-02 3.559700000000000086e-01 -1.958000000000000018e-02 -3.830433487892150879e-01 4.592257440090179443e-01 -8.014919757843017578e-01
2.616600000000000037e-01 3.927599999999999980e-01 2.469600000000000128e-01 3.453625142574310303e-01 8.256835341453552246e-01 4.460621476173400879e-01
-2.990999999999999909e-02 -1.045800000000000063e-01 -5.229000000000000314e-01 -4.327645003795623779e-01 -1.298719495534896851e-01 -8.921031951904296875e-01
-5.820000000000000173e-02 2.524500000000000077e-01 -8.672000000000000541e-02 -7.957661747932434082e-01 5.186737775802612305e-01 3.126239180564880371e-01
-6.891999999999999515e-02 -3.109999999999999917e-02 1.218000000000000055e-01 -9.248383641242980957e-01 -3.187826871871948242e-01 2.074884623289108276e-01
4.436300000000000243e-01 3.120100000000000096e-01 2.700000000000000035e-04 -2.834753394126892090e-01 9.552785754203796387e-01 8.416963368654251099e-02
2.832899999999999863e-01 3.024600000000000066e-01 3.704500000000000015e-01 -2.690787017345428467e-01 8.994500637054443359e-01 3.443635404109954834e-01
-4.179999999999999688e-02 2.761700000000000266e-01 -1.171600000000000003e-01 -2.450012415647506714e-01 7.281557321548461914e-01 6.401278972625732422e-01
-3.191300000000000248e-01 -3.805299999999999794e-01 -7.009999999999999738e-03 -6.236592531204223633e-01 -3.835672736167907715e-01 -6.811206340789794922e-01
6.112999999999999684e-02 5.091700000000000115e-01 3.948999999999999733e-02 2.640864625573158264e-02 9.211443066596984863e-01 3.883242011070251465e-01
2.965900000000000203e-01 4.207500000000000129e-01 -3.612500000000000155e-01 1.179731935262680054e-01 6.900861859321594238e-01 -7.140471339225769043e-01
1.275999999999999912e-01 3.765399999999999858e-01 -2.462300000000000044e-01 -3.422779440879821777e-01 -2.599812150001525879e-01 -9.029150009155273438e-01
-3.657099999999999795e-01 -2.003900000000000126e-01 -2.477399999999999880e-01 2.254696004092693329e-02 -9.239842891693115234e-01 3.817653059959411621e-01
3.892999999999999794e-01 4.145000000000000073e-02 2.868700000000000139e-01 7.449569702148437500e-01 -1.726732850074768066e-01 6.443780064582824707e-01
1.369400000000000062e-01 -1.784199999999999953e-01 -4.494799999999999907e-01 6.947944164276123047e-01 -6.704616546630859375e-01 -2.602727413177490234e-01
1.800100000000000033e-01 1.477999999999999869e-01 -4.054499999999999771e-01 6.610825657844543457e-01 3.934060335159301758e-01 -6.389064788818359375e-01
4.481399999999999828e-01 2.666600000000000081e-01 2.728700000000000014e-01 8.751810193061828613e-01 4.104670286178588867e-01 2.560762166976928711e-01
-1.240900000000000059e-01 -1.553499999999999881e-01 -5.194100000000000383e-01 -3.330105543136596680e-01 2.181841582059860229e-01 -9.173328876495361328e-01
-1.278100000000000069e-01 -1.723800000000000054e-01 -1.984100000000000030e-01 7.716418504714965820e-01 4.296421706676483154e-01 4.690167009830474854e-01
-2.052999999999999964e-02 1.506599999999999884e-01 -4.565799999999999859e-01 -3.553169369697570801e-01 3.927238583564758301e-01 -8.482439517974853516e-01
3.024499999999999966e-01 -1.138799999999999951e-01 2.974999999999999867e-02 5.468132495880126953e-01 -7.900039553642272949e-01 -2.772889137268066406e-01
-5.691399999999999793e-01 -1.937099999999999933e-01 -1.864399999999999946e-01 7.115117311477661133e-01 -6.651632785797119141e-01 2.265149652957916260e-01
6.683999999999999664e-02 3.513200000000000212e-01 -4.132000000000000256e-02 -7.137635350227355957e-01 5.981597304344177246e-01 -3.643440604209899902e-01
-6.056000000000000272e-02 -2.128200000000000092e-01 -4.877900000000000014e-01 -4.777001142501831055e-01 -7.488572597503662109e-01 4.593640565872192383e-01
-9.629999999999999671e-03 -1.845600000000000018e-01 -2.892299999999999871e-01 3.207113742828369141e-01 -6.018428206443786621e-01 7.313887476921081543e-01
3.412200000000000233e-01 -3.416999999999999899e-02 2.838100000000000067e-01 7.344220280647277832e-01 -5.010234117507934570e-01 4.578207731246948242e-01
3.563100000000000156e-01 1.308799999999999963e-01 4.512800000000000145e-01 -1.055715084075927734e-01 2.589009404182434082e-01 9.601171016693115234e-01
-4.986599999999999921e-01 -4.700000000000000011e-02 -2.185900000000000065e-01 -5.579094290733337402e-01 7.496505975723266602e-01 -3.560352623462677002e-01
3.374900000000000122e-01 -1.355200000000000016e-01 6.747999999999999832e-02 4.657664895057678223e-01 -8.199398517608642578e-01 -3.328066170215606689e-01
7.420000000000000207e-02 5.207800000000000207e-01 -1.745099999999999985e-01 -4.648078382015228271e-01 8.854072690010070801e-01 2.764326985925436020e-03
-2.574400000000000022e-01 -1.814900000000000124e-01 -3.299699999999999855e-01 5.450851321220397949e-01 -5.582625269889831543e-01 6.254799365997314453e-01
4.301400000000000223e-01 -4.152999999999999747e-02 -2.602000000000000146e-02 8.204798698425292969e-01 -3.639463186264038086e-01 -4.408582746982574463e-01
-2.750900000000000012e-01 -3.475300000000000056e-01 -5.199999999999999761e-03 6.387500166893005371e-01 -2.170519530773162842e-01 7.381644845008850098e-01
1.758699999999999986e-01 -1.094500000000000056e-01 -4.425499999999999989e-01 9.432162046432495117e-01 -3.014273643493652344e-01 -1.395880877971649170e-01
2.134000000000000133e-02 1.000000000000000082e-05 2.806100000000000261e-01 -5.531213283538818359e-01 -7.476404309272766113e-02 8.297391533851623535e-01
2.380700000000000038e-01 4.775999999999999690e-02 -2.992400000000000060e-01 8.540239930152893066e-01 -5.154571533203125000e-01 -7.033470273017883301e-02
3.629499999999999948e-01 2.824200000000000044e-01 -1.978300000000000058e-01 5.697970986366271973e-01 -6.949961781501770020e-01 -4.385336041450500488e-01
-3.424800000000000066e-01 -1.717299999999999938e-01 -2.318600000000000105e-01 4.385198652744293213e-01 -5.045508742332458496e-01 7.437262535095214844e-01
1.100799999999999973e-01 -9.370000000000000551e-02 -3.207699999999999996e-01 9.962779283523559570e-01 1.271540392190217972e-02 8.525543659925460815e-02
-2.390000000000000197e-03 2.162800000000000000e-01 2.589299999999999935e-01 -6.459994912147521973e-01 9.464750438928604126e-02 7.574473023414611816e-01
-8.569999999999999493e-03 -1.904099999999999959e-01 -2.998700000000000254e-01 3.764576613903045654e-01 -6.598401665687561035e-01 6.503003835678100586e-01
1.075500000000000067e-01 -1.063199999999999978e-01 -5.284699999999999953e-01 7.697811126708984375e-01 -1.827425360679626465e-01 -6.115899085998535156e-01
-5.056399999999999784e-01 -1.800900000000000001e-01 -2.238799999999999957e-01 -3.980891406536102295e-02 -8.884438276290893555e-01 4.572557508945465088e-01
2.425700000000000078e-01 4.228299999999999836e-01 -7.101999999999999980e-02 6.462773773819208145e-03 7.319008708000183105e-01 6.813804507255554199e-01
-1.534399999999999931e-01 7.206999999999999518e-02 -3.098699999999999788e-01 -7.909684777259826660e-01 6.056513190269470215e-01 -8.692175149917602539e-02
4.545199999999999796e-01 3.111099999999999977e-01 1.375899999999999901e-01 7.716028094291687012e-01 6.355376243591308594e-01 -2.685218490660190582e-02
8.749999999999999445e-02 3.908499999999999752e-01 -8.482000000000000650e-02 -9.339536428451538086e-01 1.928896754980087280e-01 3.008724153041839600e-01
1.050699999999999967e-01 2.740000000000000213e-01 -3.794100000000000250e-01 3.671542704105377197e-01 8.853879570960998535e-01 -2.851068973541259766e-01
2.502699999999999925e-01 -8.967999999999999583e-02 3.228900000000000103e-01 2.130169868469238281e-01 -5.784271955490112305e-01 7.874297499656677246e-01
1.265000000000000013e-01 2.498999999999999833e-02 -4.365299999999999736e-01 4.746755361557006836e-01 -4.620187878608703613e-01 -7.491473555564880371e-01
-6.919999999999999762e-02 -2.484500000000000042e-01 -4.957599999999999785e-01 -1.631261110305786133e-01 -7.853575944900512695e-01 -5.971627235412597656e-01
2.772700000000000164e-01 -5.244999999999999662e-02 -1.141800000000000037e-01 4.045065641403198242e-01 -9.144424796104431152e-01 -1.301847398281097412e-02
2.404999999999999846e-02 2.576399999999999801e-01 2.680699999999999750e-01 -9.254297018051147461e-01 5.774924904108047485e-02 3.744928836822509766e-01
-2.633999999999999883e-02 -1.452100000000000057e-01 1.204500000000000015e-01 -7.104650735855102539e-01 -6.773748397827148438e-01 1.907951086759567261e-01
-2.075500000000000123e-01 -3.346899999999999875e-01 -1.267199999999999993e-01 6.172227263450622559e-01 -7.476025223731994629e-01 2.452069520950317383e-01
1.581400000000000028e-01 -1.292500000000000038e-01 -4.312500000000000222e-01 8.282032012939453125e-01 -5.073747634887695312e-01 2.380131930112838745e-01
-2.258199999999999930e-01 -1.482900000000000051e-01 -4.176300000000000012e-01 -9.575121402740478516e-01 7.494753599166870117e-02 -2.784839570522308350e-01
-4.547599999999999976e-01 -1.862199999999999966e-01 -2.619699999999999807e-01 -5.356774330139160156e-01 -7.069491147994995117e-01 4.618144035339355469e-01
-1.928100000000000092e-01 -1.357899999999999940e-01 -2.653900000000000148e-01 -5.134338140487670898e-01 -4.646149650216102600e-02 8.568705916404724121e-01
1.174400000000000027e-01 1.643100000000000116e-01 3.623100000000000209e-01 -2.509323656558990479e-01 5.985534936189651489e-02 9.661523699760437012e-01
3.086400000000000254e-01 4.101600000000000246e-01 -3.484599999999999920e-01 3.765469193458557129e-01 5.874654054641723633e-01 -7.163077592849731445e-01
-4.726000000000000340e-02 -8.686000000000000665e-02 -1.563299999999999967e-01 -5.279624462127685547e-01 -6.211724877357482910e-01 -5.791376233100891113e-01
-1.822199999999999931e-01 -2.008600000000000108e-01 -3.798400000000000110e-01 1.189725752919912338e-02 -9.662539362907409668e-01 -2.573166489601135254e-01
5.449999999999999983e-02 9.829000000000000237e-02 3.397999999999999909e-01 -4.180951416492462158e-01 3.300158679485321045e-01 8.463367819786071777e-01
5.070400000000000462e-01 2.634600000000000275e-01 1.165000000000000063e-02 9.624119997024536133e-01 -2.495423257350921631e-01 -1.071996688842773438e-01
-2.193100000000000049e-01 -1.916799999999999893e-01 -3.349400000000000155e-01 -1.153366342186927795e-01 -9.717521071434020996e-01 2.059012800455093384e-01
3.417999999999999927e-01 4.055699999999999861e-01 -2.649099999999999788e-01 4.995506405830383301e-01 8.313538432121276855e-01 2.435159832239151001e-01
3.403399999999999759e-01 2.623099999999999876e-01 4.154999999999999805e-01 3.226021528244018555e-01 6.518422961235046387e-01 6.863158941268920898e-01
3.808500000000000218e-01 2.079999999999999905e-02 -1.769699999999999884e-01 5.616071820259094238e-01 -2.352906465530395508e-01 -7.932437658309936523e-01
-1.332299999999999873e-01 2.443700000000000039e-01 1.174100000000000005e-01 -8.027268052101135254e-01 4.467612504959106445e-01 3.950114548206329346e-01
1.330300000000000094e-01 5.276199999999999779e-01 -2.964200000000000168e-01 -2.076420038938522339e-01 8.776628971099853516e-01 -4.319637119770050049e-01
2.660699999999999732e-01 -5.086999999999999855e-02 -1.336799999999999933e-01 4.851145446300506592e-01 -7.495376467704772949e-01 -4.503967165946960449e-01
-3.034499999999999975e-01 -9.256999999999999951e-02 -3.242399999999999727e-01 -2.441037744283676147e-01 4.906578660011291504e-01 -8.364617228507995605e-01
-4.669999999999999846e-02 2.293100000000000138e-01 1.917300000000000115e-01 -2.823266983032226562e-01 8.818534612655639648e-01 3.776587843894958496e-01
-3.937000000000000222e-02 1.984799999999999898e-01 -4.351300000000000168e-01 -4.664051830768585205e-01 2.296084910631179810e-01 -8.542518019676208496e-01
3.629200000000000204e-01 3.375500000000000167e-01 2.411300000000000110e-01 6.519011855125427246e-01 7.068597674369812012e-01 -2.745433747768402100e-01
-7.997999999999999554e-02 2.652599999999999958e-01 -1.401699999999999890e-01 -5.646812319755554199e-01 7.564151883125305176e-01 3.301077187061309814e-01
4.687600000000000100e-01 2.821999999999999856e-02 6.137000000000000094e-02 9.699878692626953125e-01 -2.389043867588043213e-01 -4.525838047266006470e-02
1.245600000000000041e-01 3.740600000000000036e-01 -2.328699999999999937e-01 -7.299124598503112793e-01 -5.553951263427734375e-01 -3.984520435333251953e-01
4.084999999999999742e-01 3.512700000000000267e-01 -2.092100000000000071e-01 7.846044301986694336e-01 5.927025675773620605e-01 -1.819325089454650879e-01
-2.566499999999999893e-01 -2.515100000000000113e-01 -7.520999999999999908e-02 -7.461297512054443359e-01 5.419197678565979004e-01 3.867985904216766357e-01
1.114900000000000058e-01 2.798300000000000232e-01 -3.717400000000000149e-01 3.453447818756103516e-01 7.362543344497680664e-01 -5.819506049156188965e-01
2.025800000000000101e-01 4.050199999999999911e-01 1.426999999999999970e-02 2.862770855426788330e-01 8.830183744430541992e-01 3.719192445278167725e-01
2.068800000000000083e-01 -2.576000000000000165e-02 -2.398800000000000099e-01 6.643391251564025879e-01 -6.736509203910827637e-01 -3.238025009632110596e-01
6.930999999999999661e-02 3.675800000000000178e-01 -1.806999999999999926e-02 -5.847207307815551758e-01 3.376183509826660156e-01 -7.376418113708496094e-01
9.747999999999999721e-02 -9.654999999999999694e-02 -2.805099999999999816e-01 8.486784696578979492e-01 -3.584802448749542236e-01 3.888916969299316406e-01
-3.211899999999999755e-01 -3.079500000000000015e-01 1.823999999999999927e-02 -6.021860837936401367e-01 3.538458943367004395e-01 -7.156569957733154297e-01
1.447499999999999898e-01 6.295000000000000595e-02 3.729999999999999982e-01 -7.759723812341690063e-03 -5.468545481562614441e-03 9.999549388885498047e-01
-4.202000000000000179e-01 -2.062199999999999867e-01 -2.623900000000000121e-01 -7.136467844247817993e-02 -9.297922253608703613e-01 3.611004948616027832e-01
3.038000000000000145e-01 -1.336999999999999994e-02 -1.526599999999999902e-01 -7.929688096046447754e-01 -6.594038754701614380e-02 -6.056833267211914062e-01
1.958900000000000086e-01 4.411499999999999866e-01 -2.921799999999999953e-01 7.324530482292175293e-01 -5.687368512153625488e-01 -3.742337524890899658e-01
1.259500000000000064e-01 2.602499999999999813e-01 3.416299999999999892e-01 -3.848670423030853271e-01 3.127271234989166260e-01 8.683772683143615723e-01
-3.324199999999999933e-01 -1.768299999999999872e-01 -2.479200000000000015e-01 5.046904683113098145e-01 -6.910172104835510254e-01 5.174772739410400391e-01
1.071200000000000069e-01 4.842799999999999883e-01 4.329999999999999821e-02 6.092624068260192871e-01 3.995447754859924316e-01 -6.849548816680908203e-01
-2.621200000000000196e-01 -1.194500000000000006e-01 -3.665399999999999769e-01 -4.457250237464904785e-01 2.957813739776611328e-01 -8.448920845985412598e-01
-3.442700000000000204e-01 -1.050100000000000061e-01 -2.358599999999999863e-01 3.355609998106956482e-02 6.569003462791442871e-01 7.532303929328918457e-01
2.798599999999999977e-01 -4.576999999999999819e-02 -1.302999999999999992e-01 2.495359778404235840e-01 -7.571266293525695801e-01 -6.037309169769287109e-01
2.264000000000000040e-02 -2.062599999999999989e-01 -3.507199999999999762e-01 9.756729602813720703e-01 7.888595759868621826e-02 2.045464068651199341e-01
-8.175999999999999934e-02 2.813999999999999835e-02 1.308699999999999863e-01 -9.429078102111816406e-01 -2.045804113149642944e-01 2.628149390220642090e-01
4.413199999999999901e-01 1.275000000000000022e-01 -9.962999999999999634e-02 2.478404641151428223e-01 -2.679259479045867920e-01 -9.310160279273986816e-01
1.115300000000000041e-01 1.276100000000000012e-01 -4.410299999999999776e-01 2.799538075923919678e-01 -6.190551519393920898e-01 -7.337551712989807129e-01
-2.132199999999999929e-01 -2.212099999999999900e-01 -1.436300000000000077e-01 -3.677845299243927002e-01 8.879816532135009766e-01 2.760852873325347900e-01
1.223500000000000004e-01 2.655500000000000083e-01 -3.851299999999999724e-01 4.343871176242828369e-01 8.766749501228332520e-01 -2.067579925060272217e-01
4.045900000000000052e-01 2.729599999999999804e-01 3.356899999999999884e-01 3.725934624671936035e-01 9.219958186149597168e-01 1.053465753793716431e-01
3.437999999999999945e-01 7.564999999999999503e-02 3.405699999999999839e-01 2.607341110706329346e-01 -9.284586906433105469e-01 2.645414769649505615e-01
-3.796200000000000130e-01 -1.910799999999999998e-01 -3.272700000000000053e-01 -2.707431018352508545e-01 -5.309827327728271484e-01 -8.029667139053344727e-01
3.744500000000000051e-01 3.288300000000000112e-01 1.864899999999999891e-01 1.138654723763465881e-01 9.646479487419128418e-01 -2.376743257045745850e-01
-4.993000000000000216e-01 -9.034999999999999976e-02 -1.724199999999999899e-01 7.553846240043640137e-01 1.461636722087860107e-01 6.387724280357360840e-01
2.057199999999999862e-01 -4.134999999999999787e-02 3.572100000000000275e-01 5.979089066386222839e-02 -4.629401564598083496e-01 8.843706846237182617e-01
2.062900000000000011e-01 4.252000000000000224e-01 8.229999999999999816e-02 5.267757773399353027e-01 8.457391858100891113e-01 -8.504432439804077148e-02
2.421899999999999886e-01 4.006500000000000061e-01 -6.067000000000000171e-02 3.412782847881317139e-01 3.866958022117614746e-01 8.567353487014770508e-01
-2.218400000000000094e-01 -2.989800000000000235e-01 -2.138799999999999868e-01 -2.016216814517974854e-01 -5.221208333969116211e-01 -8.286969661712646484e-01
1.052600000000000063e-01 2.293999999999999928e-01 3.318699999999999983e-01 -6.514473557472229004e-01 3.090540170669555664e-01 6.928939819335937500e-01
1.775299999999999934e-01 8.349999999999999784e-03 3.698600000000000221e-01 -2.163990586996078491e-01 -2.209512144327163696e-01 9.509743452072143555e-01
-3.048000000000000015e-02 2.795699999999999852e-01 -3.790100000000000136e-01 -8.612032979726791382e-02 7.813515067100524902e-01 -6.181206107139587402e-01
4.341599999999999904e-01 2.753099999999999992e-01 -1.977700000000000014e-01 1.671592891216278076e-01 -5.293512344360351562e-01 -8.317722082138061523e-01
1.062499999999999972e-01 3.191100000000000048e-01 -3.135899999999999799e-01 3.716181218624114990e-01 9.191054701805114746e-01 1.309390217065811157e-01
6.922000000000000375e-02 -1.627200000000000035e-01 -5.031000000000000055e-02 -1.657220125198364258e-01 -7.494201660156250000e-01 -6.410192251205444336e-01
2.313600000000000101e-01 4.490600000000000147e-01 -2.427900000000000058e-01 2.951095104217529297e-01 8.305831551551818848e-01 4.722731113433837891e-01
4.411800000000000166e-01 7.388999999999999735e-02 1.517499999999999960e-01 9.037234783172607422e-01 -3.955896496772766113e-01 1.636848002672195435e-01
1.585300000000000042e-01 4.480399999999999938e-01 1.581299999999999928e-01 8.120791912078857422e-01 4.754707217216491699e-01 -3.383121490478515625e-01
1.360500000000000043e-01 -2.624999999999999903e-02 -4.788899999999999824e-01 7.525420784950256348e-01 5.102542638778686523e-01 -4.163184165954589844e-01
-3.470999999999999780e-02 -2.262500000000000067e-01 -3.019000000000000017e-01 5.434116125106811523e-01 -2.244597524404525757e-01 8.089015483856201172e-01
3.906200000000000228e-01 -1.685000000000000039e-02 2.431599999999999873e-01 7.037293314933776855e-01 -6.429615616798400879e-01 3.022670745849609375e-01
1.117599999999999982e-01 3.672000000000000264e-01 2.777000000000000024e-01 -2.355487644672393799e-01 8.796579837799072266e-01 4.131811857223510742e-01
3.520800000000000041e-01 3.410299999999999998e-01 -5.800999999999999907e-02 4.063758254051208496e-01 9.134926795959472656e-01 -1.974625885486602783e-02
-1.563700000000000090e-01 5.938000000000000222e-02 -2.697499999999999898e-01 -9.032514095306396484e-01 -3.237716555595397949e-01 2.816180884838104248e-01
6.907000000000000639e-02 -1.825900000000000023e-01 -4.255599999999999938e-01 5.584502220153808594e-01 -1.298471391201019287e-01 8.193125724792480469e-01
3.982399999999999829e-01 3.540999999999999703e-02 -1.219699999999999951e-01 9.419623017311096191e-01 -3.876443207263946533e-02 -3.334730863571166992e-01
4.934999999999999803e-02 3.369099999999999873e-01 2.519199999999999773e-01 -7.728884816169738770e-01 3.896420896053314209e-01 5.008218288421630859e-01
-1.418099999999999916e-01 1.636999999999999914e-02 -1.814300000000000079e-01 -8.672118186950683594e-01 -4.855052232742309570e-01 -1.105820611119270325e-01
-3.441999999999999921e-02 4.026299999999999879e-01 8.390999999999999848e-02 -6.932675242424011230e-01 7.166150212287902832e-01 7.643985003232955933e-02
-1.982500000000000095e-01 -6.317000000000000393e-02 -4.261400000000000188e-01 -6.200226545333862305e-01 3.001908659934997559e-01 -7.248843908309936523e-01
4.877299999999999969e-01 1.544899999999999884e-01 5.612000000000000322e-02 1.992293596267700195e-01 -7.113059163093566895e-01 -6.740561127662658691e-01
8.043000000000000149e-02 -2.091800000000000048e-01 3.370999999999999691e-02 -3.962324857711791992e-01 -8.501681089401245117e-01 -3.467189371585845947e-01
8.261000000000000287e-02 3.892399999999999749e-01 -1.819099999999999884e-01 -9.785267710685729980e-01 1.823049038648605347e-02 -2.053120285272598267e-01
-1.771399999999999919e-01 -2.935300000000000131e-01 -1.910000000000000022e-03 5.968452692031860352e-01 -7.316698431968688965e-01 3.292944729328155518e-01
-1.471399999999999930e-01 6.311999999999999555e-02 -1.096899999999999958e-01 -9.760349988937377930e-01 -2.801802940666675568e-02 2.158023118972778320e-01
2.228300000000000003e-01 -1.467199999999999893e-01 -4.873000000000000248e-02 -3.378016650676727295e-01 -1.725130379199981689e-01 -9.252725243568420410e-01
1.453899999999999915e-01 3.494300000000000184e-01 -2.229500000000000093e-01 3.554610013961791992e-01 -4.480797424912452698e-02 -9.336165189743041992e-01
1.827000000000000152e-02 3.041900000000000159e-01 -3.934599999999999764e-01 -5.524052307009696960e-02 8.463113903999328613e-01 -5.298165082931518555e-01
4.117199999999999749e-01 4.744000000000000300e-02 -1.091099999999999987e-01 8.557530641555786133e-01 2.687177434563636780e-02 -5.166862010955810547e-01
-4.614099999999999868e-01 -1.211900000000000061e-01 -2.748900000000000232e-01 -1.237028315663337708e-01 6.407744288444519043e-01 -7.576976418495178223e-01
4.772100000000000231e-01 1.020299999999999957e-01 -4.775000000000000078e-02 8.683997392654418945e-01 -2.035057246685028076e-01 -4.521806836128234863e-01
2.800400000000000111e-01 1.037600000000000050e-01 -2.867100000000000204e-01 9.423521757125854492e-01 -8.771193772554397583e-02 -3.229227662086486816e-01
3.483399999999999830e-01 2.609500000000000153e-01 -1.716900000000000093e-01 2.955415546894073486e-01 -9.278972148895263672e-01 -2.272923737764358521e-01
-3.267100000000000004e-01 -3.362800000000000233e-01 3.611000000000000321e-02 9.942180663347244263e-02 5.268468856811523438e-01 -8.441253900527954102e-01
1.005100000000000021e-01 -3.425999999999999879e-02 3.280000000000000138e-01 -3.036327958106994629e-01 -5.614098906517028809e-01 7.698221206665039062e-01
3.523000000000000020e-01 2.631000000000000005e-01 4.117700000000000249e-01 3.926148712635040283e-01 6.747105121612548828e-01 6.249955296516418457e-01
4.753100000000000103e-01 1.613600000000000034e-01 3.552400000000000002e-01 8.538227081298828125e-01 -2.193467170000076294e-01 4.720951318740844727e-01
-1.467400000000000093e-01 1.035999999999999976e-01 -8.731999999999999484e-02 -9.356055259704589844e-01 1.581096053123474121e-01 3.156639933586120605e-01
-2.261199999999999877e-01 -2.918100000000000138e-01 -1.324200000000000099e-01 2.002144455909729004e-01 5.090897679328918457e-01 8.371031880378723145e-01
1.525700000000000112e-01 4.239200000000000190e-01 3.708000000000000185e-02 2.529674172401428223e-01 8.520506620407104492e-01 4.582762122154235840e-01
-9.798999999999999377e-02 2.634000000000000230e-01 -1.703000000000000069e-01 -3.607817888259887695e-01 7.984995245933532715e-01 4.819076955318450928e-01
1.059900000000000009e-01 -8.414000000000000645e-02 -3.743000000000000216e-01 9.462521672248840332e-01 2.653745710849761963e-01 1.848869770765304565e-01
2.160400000000000098e-01 1.358999999999999965e-02 3.667000000000000259e-01 1.971214562654495239e-01 -5.177412033081054688e-01 8.325184583663940430e-01
3.861299999999999732e-01 3.394699999999999940e-01 -1.229100000000000054e-01 1.246866025030612946e-02 9.663672447204589844e-01 2.568637430667877197e-01
-8.891000000000000292e-02 3.293000000000000094e-02 -2.963999999999999968e-02 -3.273863494396209717e-01 -6.531906723976135254e-01 -6.827592253684997559e-01
2.866099999999999759e-01 4.202299999999999924e-01 -1.738599999999999868e-01 1.827684789896011353e-01 9.290319085121154785e-01 3.217069804668426514e-01
-2.581399999999999806e-01 -1.953999999999999904e-01 -3.072599999999999776e-01 2.228299677371978760e-01 -9.268635511398315430e-01 3.021106421947479248e-01
-2.920999999999999985e-02 -2.381699999999999928e-01 -3.194699999999999762e-01 3.636865615844726562e-01 3.742498904466629028e-02 9.307693243026733398e-01
3.344900000000000095e-01 3.137900000000000134e-01 4.426000000000000073e-02 1.294329464435577393e-01 7.068077325820922852e-01 6.954638957977294922e-01
-4.325899999999999745e-01 -7.968000000000000083e-02 -2.309400000000000064e-01 -1.335636675357818604e-01 -6.550038456916809082e-01 7.437275052070617676e-01
1.366400000000000114e-01 4.255700000000000038e-01 2.298199999999999965e-01 -8.591002821922302246e-01 8.523748815059661865e-02 5.046595335006713867e-01
7.484999999999999987e-02 4.607899999999999774e-01 -2.482499999999999984e-01 -9.434330463409423828e-01 -2.605483233928680420e-01 -2.050577253103256226e-01
2.078999999999999945e-02 -2.538300000000000001e-01 -3.974199999999999955e-01 6.025138497352600098e-01 -7.947751283645629883e-01 7.286710292100906372e-02
9.286999999999999422e-02 -9.547999999999999543e-02 -2.202999999999999958e-01 3.402007520198822021e-01 -8.108158707618713379e-01 -4.762783944606781006e-01
-1.228100000000000025e-01 2.167999999999999927e-01 -1.550799999999999956e-01 -7.466663122177124023e-01 3.856027722358703613e-01 5.420331954956054688e-01
-7.278999999999999360e-02 7.066000000000000059e-02 1.057000000000000023e-01 -9.016337990760803223e-01 4.318652749061584473e-01 2.343041263520717621e-02
1.850100000000000078e-01 3.392999999999999905e-01 -2.098800000000000110e-01 -4.445376247167587280e-02 -5.600643809884786606e-03 -9.989957213401794434e-01
2.335999999999999882e-02 1.748599999999999877e-01 -4.590199999999999836e-01 -2.176617234945297241e-01 4.344998598098754883e-01 -8.739755153656005859e-01
1.089900000000000035e-01 2.002200000000000091e-01 -4.577999999999999847e-01 3.455144166946411133e-01 5.358053445816040039e-01 -7.704105377197265625e-01
2.636200000000000210e-01 1.088100000000000039e-01 -3.143400000000000083e-01 8.807799816131591797e-01 -4.278641194105148315e-02 -4.715886116027832031e-01
-6.765000000000000180e-02 1.298700000000000132e-01 -4.568900000000000183e-01 -4.764396548271179199e-01 1.462217122316360474e-01 -8.669627308845520020e-01
1.963399999999999868e-01 -9.303000000000000158e-02 -1.533899999999999986e-01 1.556524187326431274e-01 -8.933744430541992188e-01 -4.214907586574554443e-01
1.107999999999999957e-01 5.162400000000000322e-01 -1.776699999999999946e-01 4.462056756019592285e-01 8.905001878738403320e-01 8.893780410289764404e-02
2.351600000000000079e-01 4.040500000000000203e-01 1.277999999999999969e-02 5.354862809181213379e-01 8.372943401336669922e-01 1.104204729199409485e-01
-1.170800000000000035e-01 1.089600000000000013e-01 -4.460999999999999688e-02 -9.720739722251892090e-01 2.281233519315719604e-01 5.506284907460212708e-02
-1.318900000000000072e-01 2.057599999999999985e-01 -1.685000000000000109e-01 -4.858449995517730713e-01 5.110625624656677246e-01 7.090625166893005371e-01
6.683000000000000052e-02 2.661200000000000232e-01 -4.182100000000000262e-01 3.495851904153823853e-02 6.557768583297729492e-01 -7.541449666023254395e-01
-1.067199999999999954e-01 1.959500000000000131e-01 -1.943999999999999895e-02 -8.677694797515869141e-01 2.966785430908203125e-01 -3.986954689025878906e-01
1.018899999999999945e-01 2.689000000000000071e-02 -4.331099999999999950e-01 6.354642510414123535e-01 -3.905399441719055176e-01 -6.660808324813842773e-01
1.911799999999999888e-01 -2.098800000000000110e-01 6.537999999999999368e-02 1.624447405338287354e-01 -8.714226484298706055e-01 -4.628544151782989502e-01
-2.486999999999999975e-02 3.259900000000000020e-01 -1.695000000000000118e-01 -4.806077778339385986e-01 8.573265671730041504e-01 1.844104528427124023e-01
1.252999999999999947e-01 -7.445000000000000229e-02 -2.608400000000000163e-01 -2.735316008329391479e-02 -9.612592458724975586e-01 2.742852866649627686e-01
-1.543400000000000050e-01 6.499000000000000610e-02 -2.540399999999999880e-01 -8.869431018829345703e-01 -4.303504228591918945e-01 -1.677212417125701904e-01
-1.045999999999999985e-01 -2.156999999999999890e-02 -5.031499999999999861e-01 -6.208522319793701172e-01 -1.767159253358840942e-01 -7.637499570846557617e-01
2.014900000000000024e-01 4.443799999999999972e-01 -8.795000000000000040e-02 2.266583293676376343e-01 6.610746383666992188e-01 7.152665853500366211e-01
-5.311900000000000510e-01 -1.562199999999999978e-01 -2.884700000000000042e-01 -3.529031872749328613e-01 5.165948271751403809e-01 -7.801212072372436523e-01
8.987000000000000544e-02 5.059200000000000363e-01 -1.058100000000000013e-01 5.428054928779602051e-01 7.674556970596313477e-01 3.411362469196319580e-01
6.837999999999999634e-02 5.192299999999999693e-01 -1.552000000000000081e-02 7.005228996276855469e-01 6.973688602447509766e-01 -1.514736264944076538e-01
-6.844999999999999696e-02 2.380299999999999916e-01 -1.001900000000000013e-01 -3.761306777596473694e-02 7.735068798065185547e-01 6.326708793640136719e-01
5.028700000000000392e-01 2.918700000000000183e-01 -9.121999999999999553e-02 9.694422483444213867e-01 2.452282011508941650e-01 -6.699726916849613190e-03
-9.311999999999999444e-02 2.549199999999999799e-01 1.366199999999999914e-01 -5.675467848777770996e-01 6.493728160858154297e-01 5.061675310134887695e-01
-2.633099999999999885e-01 -2.583099999999999841e-01 -1.930800000000000016e-01 -9.372682571411132812e-01 -4.319581389427185059e-02 -3.459224700927734375e-01
-8.409999999999999420e-02 1.234299999999999981e-01 1.772400000000000087e-01 -8.269972801208496094e-01 -5.418477058410644531e-01 1.499216556549072266e-01
9.620000000000000079e-03 -1.137699999999999961e-01 -1.588199999999999890e-01 -6.943323016166687012e-01 -7.178757786750793457e-01 -5.056756362318992615e-02
-1.074999999999999983e-01 -2.567800000000000082e-01 -3.793799999999999950e-01 -7.626637071371078491e-02 -9.970781207084655762e-01 -4.321422427892684937e-03
-1.331400000000000083e-01 -3.821000000000000091e-02 -1.354200000000000126e-01 -7.718951702117919922e-01 -4.972968101501464844e-01 3.960729539394378662e-01
1.568999999999999909e-02 -1.222000000000000031e-01 -5.451300000000000034e-01 -5.286495685577392578e-01 -1.399063616991043091e-01 -8.372310400009155273e-01
1.063800000000000023e-01 -8.838999999999999635e-02 -3.002799999999999914e-01 8.773408532142639160e-01 -8.448939770460128784e-02 4.723711907863616943e-01
-5.122999999999999776e-02 3.634800000000000253e-01 9.303000000000000158e-02 -4.888229668140411377e-01 7.859658002853393555e-01 -3.785628974437713623e-01
1.282500000000000029e-01 3.280199999999999783e-01 -2.404199999999999948e-01 4.009120464324951172e-01 8.244692683219909668e-01 -3.993994593620300293e-01
-2.148299999999999932e-01 -2.574899999999999967e-01 -8.460000000000000506e-03 -3.355630040168762207e-01 8.996636867523193359e-01 2.792896330356597900e-01
2.997900000000000009e-01 -8.419999999999999707e-02 -3.327999999999999708e-02 3.427000343799591064e-01 -7.705815434455871582e-01 -5.373647809028625488e-01
1.894599999999999895e-01 3.965199999999999836e-01 4.984000000000000236e-02 -9.586147964000701904e-02 9.407284855842590332e-01 3.253312408924102783e-01
3.395799999999999930e-01 3.648600000000000176e-01 1.712500000000000133e-01 4.020982980728149414e-01 7.837491631507873535e-01 4.733436107635498047e-01
3.979400000000000159e-01 3.632400000000000073e-01 -2.935200000000000031e-01 8.260691761970520020e-01 5.324062705039978027e-01 1.848062723875045776e-01
2.444800000000000029e-01 2.710400000000000031e-01 -2.721000000000000085e-01 2.584854066371917725e-01 3.188930749893188477e-01 -9.118621349334716797e-01
4.087899999999999867e-01 -3.203999999999999904e-02 1.728000000000000091e-01 6.395532488822937012e-01 -7.666957378387451172e-01 5.611804872751235962e-02
-6.371999999999999886e-02 -7.910999999999999976e-02 -7.863000000000000544e-02 -5.102640390396118164e-01 -8.418952226638793945e-01 1.756222397089004517e-01
-5.531000000000000361e-01 -1.847799999999999998e-01 -2.497800000000000020e-01 1.867392063140869141e-01 -6.636101007461547852e-01 7.243964076042175293e-01
4.522499999999999853e-01 2.467799999999999994e-01 2.654299999999999993e-01 9.601746201515197754e-01 -2.169047743082046509e-01 1.761162132024765015e-01
9.131000000000000227e-02 4.765800000000000036e-01 1.274899999999999922e-01 -7.464060783386230469e-01 6.336132884025573730e-01 2.035000622272491455e-01
3.836499999999999910e-01 3.661499999999999755e-01 -2.116000000000000103e-01 4.464594125747680664e-01 8.922775983810424805e-01 -6.719089299440383911e-02
-4.528400000000000203e-01 -1.203100000000000003e-01 -1.969400000000000039e-01 2.887775003910064697e-01 9.644284099340438843e-02 9.525262713432312012e-01
-1.902200000000000002e-01 3.232000000000000151e-02 -3.199299999999999922e-01 -8.338068127632141113e-01 5.289213061332702637e-01 1.581407934427261353e-01
4.431399999999999784e-01 3.017199999999999882e-01 -6.500999999999999834e-02 -4.717366397380828857e-01 8.699167966842651367e-01 1.439074873924255371e-01
1.650999999999999968e-01 -1.258100000000000052e-01 -4.594199999999999950e-01 8.818364143371582031e-01 -4.115347564220428467e-01 -2.302255779504776001e-01
-1.411399999999999877e-01 7.918000000000000038e-02 -1.384499999999999897e-01 -9.926400780677795410e-01 -1.164682358503341675e-01 3.317855298519134521e-02
-3.100899999999999768e-01 -8.767999999999999405e-02 -2.891199999999999881e-01 2.197594195604324341e-02 8.218720555305480957e-01 5.692481398582458496e-01
4.705300000000000038e-01 2.206899999999999973e-01 -6.618000000000000271e-02 8.733953833580017090e-01 -4.824714958667755127e-01 -6.634626537561416626e-02
7.123000000000000165e-02 -1.229599999999999999e-01 -1.949400000000000022e-01 2.031431198120117188e-01 -9.599165916442871094e-01 -1.931143254041671753e-01
9.371000000000000163e-02 -1.578900000000000026e-01 -7.699000000000000288e-02 -5.392203107476234436e-02 -7.921202182769775391e-01 -6.079785823822021484e-01
-1.917899999999999883e-01 -2.755900000000000016e-01 -1.273400000000000087e-01 2.329604923725128174e-01 -9.546957015991210938e-01 -1.851637363433837891e-01
3.012799999999999923e-01 3.779000000000000137e-01 3.253999999999999948e-02 3.100676834583282471e-01 9.406567215919494629e-01 1.379238367080688477e-01
4.685000000000000275e-01 6.196000000000000119e-02 1.452199999999999880e-01 8.487384915351867676e-01 -1.596438884735107422e-01 5.041396021842956543e-01
-1.311900000000000011e-01 6.440999999999999504e-02 -4.412099999999999911e-01 -4.966054856777191162e-01 4.912258684635162354e-01 -7.155977487564086914e-01
2.076000000000000068e-02 1.682200000000000084e-01 2.984499999999999931e-01 -7.840666770935058594e-01 3.197886049747467041e-02 6.198523044586181641e-01
-1.032799999999999968e-01 4.698000000000000093e-02 5.777999999999999803e-02 -9.543625712394714355e-01 -2.451581060886383057e-01 1.705570667982101440e-01
-1.223400000000000043e-01 -2.406200000000000006e-01 -3.021599999999999842e-01 -8.401854634284973145e-01 -4.979833066463470459e-01 -2.147115021944046021e-01
2.079499999999999960e-01 3.063100000000000267e-01 3.257599999999999940e-01 3.116455674171447754e-01 3.283553123474121094e-01 8.916612863540649414e-01
-1.226600000000000051e-01 -2.062900000000000011e-01 -4.982099999999999862e-01 -5.056052654981613159e-02 -8.124844431877136230e-01 -5.807862877845764160e-01
-7.910000000000000364e-03 2.812399999999999900e-01 -4.042799999999999727e-01 -4.509376883506774902e-01 5.526032447814941406e-01 -7.009172439575195312e-01
4.923000000000000292e-02 4.053899999999999726e-01 1.734999999999999876e-01 -6.352701187133789062e-01 7.500486373901367188e-01 1.840078681707382202e-01
-6.189999999999999669e-02 -6.185000000000000220e-02 1.289899999999999936e-01 -9.496199488639831543e-01 -3.066443800926208496e-01 6.473843008279800415e-02
-2.556999999999999898e-02 1.167300000000000004e-01 2.418200000000000072e-01 -3.796849548816680908e-01 -8.748435974121093750e-01 3.008121848106384277e-01
2.938700000000000201e-01 3.750499999999999945e-01 2.224800000000000111e-01 7.844600081443786621e-01 5.956825613975524902e-01 -1.725829094648361206e-01
-4.858100000000000196e-01 -1.541899999999999937e-01 -2.954100000000000059e-01 -1.082004830241203308e-01 8.764584660530090332e-01 4.691622555255889893e-01
8.426000000000000156e-02 4.511800000000000255e-01 -2.321799999999999975e-01 -9.431726932525634766e-01 -3.311440050601959229e-01 2.772790379822254181e-02
-1.417100000000000026e-01 -2.366499999999999992e-01 -2.071800000000000030e-01 7.886607646942138672e-01 -5.700526833534240723e-01 -2.303347885608673096e-01
2.281600000000000017e-01 3.867499999999999827e-01 7.953999999999999959e-02 2.783387303352355957e-01 8.342894315719604492e-01 4.759082794189453125e-01
-3.806700000000000084e-01 -1.657099999999999962e-01 -2.323099999999999887e-01 -2.397419959306716919e-01 2.707337439060211182e-01 9.323234558105468750e-01
6.256000000000000449e-02 4.624000000000000332e-02 -4.434199999999999808e-01 1.118800044059753418e-01 -3.335995972156524658e-01 -9.360524415969848633e-01
4.957999999999999907e-02 -1.814600000000000102e-01 1.128799999999999942e-01 -4.768196642398834229e-01 -8.732556104660034180e-01 -1.003378480672836304e-01
9.859999999999999321e-02 -1.476699999999999957e-01 -5.164400000000000102e-01 5.276806354522705078e-01 1.090670377016067505e-01 -8.424116969108581543e-01
1.330600000000000116e-01 4.484799999999999898e-01 -3.236299999999999732e-01 -3.192486763000488281e-01 -4.877566993236541748e-01 -8.125107884407043457e-01
4.676199999999999801e-01 2.127000000000000071e-02 -1.648000000000000159e-02 8.725985884666442871e-01 -4.503704309463500977e-01 -1.890451610088348389e-01
1.180299999999999960e-01 -2.007099999999999995e-01 -3.477999999999999842e-02 -2.468033730983734131e-01 -8.674849271774291992e-01 -4.319236576557159424e-01
-3.764600000000000168e-01 -1.110399999999999998e-01 -3.139100000000000223e-01 -5.068681240081787109e-01 2.211759090423583984e-01 -8.331661820411682129e-01
-1.868799999999999906e-01 -2.830500000000000238e-01 -2.519600000000000173e-01 -1.275077760219573975e-01 -7.667328715324401855e-01 -6.291760206222534180e-01
2.189200000000000035e-01 -4.338000000000000189e-02 3.382399999999999851e-01 3.812739849090576172e-01 -2.768901288509368896e-01 8.820215463638305664e-01
-9.286999999999999422e-02 1.329500000000000126e-01 6.090999999999999887e-02 -9.669117927551269531e-01 -2.463424056768417358e-01 6.630990654230117798e-02
-4.713899999999999757e-01 -1.073899999999999993e-01 -2.007700000000000040e-01 3.093707561492919922e-01 1.295952647924423218e-01 9.420694708824157715e-01
7.080999999999999794e-02 -1.688500000000000001e-01 -3.406000000000000000e-02 -3.216018974781036377e-01 -6.274853348731994629e-01 -7.091081142425537109e-01
-3.852099999999999969e-01 -6.619999999999999496e-02 -2.779499999999999749e-01 -4.269801452755928040e-02 9.839125871658325195e-01 -1.734727919101715088e-01
3.813199999999999923e-01 2.364499999999999935e-01 -1.372899999999999954e-01 -1.470999419689178467e-01 -8.224988579750061035e-01 -5.494154095649719238e-01
